ply
format ascii 1.0
element vertex 1160
property float x
property float y
property float z
property uchar red
property uchar green
property uchar blue
end_header
-1.108108 0.882883 -4.612613 190 202 240 
-6.375000 6.125000 -32.000000 201 216 255 
-6.312500 6.125000 -32.000000 200 216 255 
-6.250000 6.125000 -32.000000 201 216 255 
-6.187500 6.125000 -32.000000 202 217 255 
-6.125000 6.125000 -32.000000 202 217 255 
-6.062500 6.125000 -32.000000 202 217 255 
-6.000000 6.125000 -32.000000 202 217 255 
-5.937500 6.125000 -32.000000 202 217 255 
-5.875000 6.125000 -32.000000 201 217 255 
-5.812500 6.125000 -32.000000 200 216 255 
-5.750000 6.125000 -32.000000 199 216 255 
-5.687500 6.125000 -32.000000 199 216 255 
-5.625000 6.125000 -32.000000 200 217 255 
-5.562500 6.125000 -32.000000 200 216 255 
-5.120000 5.701818 -29.789091 199 215 255 
-4.884211 5.501754 -28.743860 197 214 255 
-4.664407 5.315254 -27.769491 197 214 255 
-4.610169 5.315254 -27.769491 196 214 255 
0.055556 1.088889 -5.688889 44 47 58 
0.066667 1.088889 -5.688889 85 91 114 
0.077724 1.088133 -5.684941 92 101 131 
0.087912 1.076923 -5.626374 95 107 139 
0.098901 1.076923 -5.626374 176 189 223 
0.109890 1.076923 -5.626374 210 224 254 
0.120713 1.075446 -5.618656 209 225 255 
0.131148 1.071038 -5.595628 206 225 255 
0.141883 1.069577 -5.587995 205 226 255 
0.152589 1.068120 -5.580381 203 227 255 
0.163488 1.068120 -5.580381 202 226 255 
0.360360 0.882883 -4.612613 221 220 237 
0.369369 0.882883 -4.612613 234 233 247 
0.378378 0.882883 -4.612613 248 248 255 
0.387387 0.882883 -4.612613 253 253 255 
0.396396 0.882883 -4.612613 253 254 254 
0.405405 0.882883 -4.612613 253 254 254 
0.414414 0.882883 -4.612613 253 254 254 
0.423423 0.882883 -4.612613 253 254 254 
0.432432 0.882883 -4.612613 253 254 254 
0.441441 0.882883 -4.612613 253 254 254 
0.450450 0.882883 -4.612613 253 254 254 
0.459459 0.882883 -4.612613 253 254 254 
0.468468 0.882883 -4.612613 253 254 254 
0.477477 0.882883 -4.612613 253 254 254 
0.486486 0.882883 -4.612613 253 254 254 
0.495495 0.882883 -4.612613 253 254 254 
0.504505 0.882883 -4.612613 253 254 254 
0.513514 0.882883 -4.612613 253 254 254 
0.522523 0.882883 -4.612613 253 254 254 
0.531532 0.882883 -4.612613 253 254 254 
0.540541 0.882883 -4.612613 253 254 254 
0.549550 0.882883 -4.612613 253 254 254 
0.558559 0.882883 -4.612613 253 254 254 
0.567568 0.882883 -4.612613 253 254 254 
0.576577 0.882883 -4.612613 253 254 254 
0.585586 0.882883 -4.612613 253 254 254 
0.594595 0.882883 -4.612613 253 254 254 
0.603604 0.882883 -4.612613 253 254 254 
0.612613 0.882883 -4.612613 253 254 254 
0.621622 0.882883 -4.612613 253 254 254 
0.630631 0.882883 -4.612613 253 254 254 
0.639640 0.882883 -4.612613 253 254 254 
0.648649 0.882883 -4.612613 253 254 254 
0.657658 0.882883 -4.612613 253 254 254 
0.666667 0.882883 -4.612613 253 254 254 
0.675676 0.882883 -4.612613 253 254 254 
0.684685 0.882883 -4.612613 253 254 254 
0.693694 0.882883 -4.612613 251 252 252 
0.702703 0.882883 -4.612613 250 251 251 
0.711712 0.882883 -4.612613 249 250 250 
0.720721 0.882883 -4.612613 249 249 251 
0.729730 0.882883 -4.612613 248 248 252 
0.738739 0.882883 -4.612613 246 246 252 
0.747748 0.882883 -4.612613 246 246 254 
0.756757 0.882883 -4.612613 245 245 254 
0.765766 0.882883 -4.612613 244 243 254 
0.774775 0.882883 -4.612613 242 241 255 
0.783784 0.882883 -4.612613 241 240 255 
0.792793 0.882883 -4.612613 241 240 255 
0.801802 0.882883 -4.612613 241 240 255 
0.810811 0.882883 -4.612613 240 239 255 
0.819820 0.882883 -4.612613 239 238 255 
0.828829 0.882883 -4.612613 239 237 255 
0.837838 0.882883 -4.612613 238 236 255 
0.846847 0.882883 -4.612613 236 234 255 
0.855856 0.882883 -4.612613 235 233 255 
1.109185 0.905835 -4.732524 217 216 238 
1.117138 0.904789 -4.727063 216 215 236 
1.125721 0.904268 -4.724337 216 215 236 
1.134948 0.904268 -4.724337 216 215 236 
1.144175 0.904268 -4.724337 216 214 235 
1.153403 0.904268 -4.724337 216 214 233 
1.163972 0.905312 -4.729792 215 214 231 
1.173888 0.905835 -4.732524 215 214 230 
1.183815 0.906358 -4.735260 213 212 228 
1.193064 0.906358 -4.735260 212 211 227 
1.200924 0.905312 -4.729792 210 209 225 
1.210162 0.905312 -4.729792 209 208 225 
1.508386 0.906883 -4.737999 193 192 198 
1.517640 0.906883 -4.737999 192 191 197 
1.526894 0.906883 -4.737999 192 191 195 
1.535260 0.906358 -4.735260 191 190 194 
1.543616 0.905835 -4.732524 188 188 192 
1.551963 0.905312 -4.729792 188 187 191 
1.561201 0.905312 -4.729792 188 187 190 
1.571346 0.905835 -4.732524 188 187 190 
1.581503 0.906358 -4.735260 188 187 191 
1.592593 0.907407 -4.740741 187 186 191 
1.601852 0.907407 -4.740741 186 185 191 
1.707036 0.904268 -4.724337 180 180 181 
1.712313 0.902186 -4.713464 179 179 180 
1.721519 0.902186 -4.713464 178 178 178 
1.735718 0.904789 -4.727063 178 178 178 
1.814727 0.931116 -4.864608 177 177 177 
1.813459 0.925620 -4.835891 176 177 177 
1.822904 0.925620 -4.835891 176 177 177 
2.302684 0.895488 -4.678470 119 101 58 
2.306553 0.893447 -4.667806 119 101 58 
2.310404 0.891416 -4.657192 120 101 57 
2.318182 0.890909 -4.654545 121 101 56 
2.324631 0.889898 -4.649262 122 101 56 
2.327108 0.887380 -4.636106 122 101 58 
2.324324 0.882883 -4.612613 123 102 60 
2.333333 0.882883 -4.612613 122 101 60 
2.342342 0.882883 -4.612613 122 101 59 
2.351351 0.882883 -4.612613 121 100 58 
2.360360 0.882883 -4.612613 121 100 58 
2.369369 0.882883 -4.612613 121 101 58 
2.378378 0.882883 -4.612613 120 101 57 
2.387387 0.882883 -4.612613 120 100 55 
2.396396 0.882883 -4.612613 119 99 54 
2.712381 0.995556 -5.201270 117 99 54 
2.726001 0.996821 -5.207883 117 99 55 
8.978641 3.044660 -15.906796 119 97 52 
8.992249 3.038760 -15.875969 120 98 52 
8.988417 3.027027 -15.814672 119 98 52 
9.001926 3.021195 -15.784201 117 98 55 
9.085271 3.038760 -15.875969 116 98 56 
9.116279 3.038760 -15.875969 116 99 57 
5.812808 1.931034 -10.088670 116 99 57 
5.818182 1.926290 -10.063882 117 99 57 
5.852217 1.931034 -10.088670 118 99 57 
5.893696 1.938195 -10.126081 118 98 54 
5.950249 1.950249 -10.189054 118 96 50 
5.977584 1.952677 -10.201743 110 87 43 
6.004988 1.955112 -10.214464 80 58 23 
6.032459 1.957553 -10.227216 129 110 80 
6.052434 1.957553 -10.227216 153 142 116 
6.072410 1.957553 -10.227216 153 145 124 
6.092384 1.957553 -10.227216 120 113 97 
6.112360 1.957553 -10.227216 56 51 42 
7.935380 2.533118 -13.234249 31 29 24 
7.961228 2.533118 -13.234249 29 29 22 
7.974194 2.529032 -13.212903 67 67 58 
7.961477 2.516854 -13.149278 133 133 121 
7.974359 2.512820 -13.128205 148 149 134 
8.000000 2.512820 -13.128205 152 153 138 
-1.873874 0.873874 -4.612613 150 150 165 
-1.864865 0.873874 -4.612613 149 151 166 
-1.855856 0.873874 -4.612613 149 152 167 
-1.846847 0.873874 -4.612613 149 152 166 
-1.837838 0.873874 -4.612613 149 153 165 
-1.828829 0.873874 -4.612613 150 153 164 
-1.819820 0.873874 -4.612613 150 153 164 
-1.810811 0.873874 -4.612613 150 153 165 
-1.813031 0.879320 -4.641360 150 153 166 
-1.804989 0.879819 -4.643991 152 154 167 
-1.795918 0.879819 -4.643991 153 156 168 
-1.780838 0.890419 -4.699943 155 157 170 
-1.769627 0.889398 -4.694556 156 158 172 
-1.760458 0.889398 -4.694556 156 158 173 
-1.750286 0.888889 -4.691867 157 158 174 
-1.741123 0.888889 -4.691867 158 158 174 
-1.731959 0.888889 -4.691867 158 158 176 
-1.722795 0.888889 -4.691867 158 158 178 
-1.360360 0.873874 -4.612613 173 179 208 
-1.351351 0.873874 -4.612613 173 180 208 
-1.342342 0.873874 -4.612613 175 181 209 
-1.333333 0.873874 -4.612613 176 181 209 
-1.324324 0.873874 -4.612613 177 182 209 
-1.315315 0.873874 -4.612613 178 183 210 
-1.306306 0.873874 -4.612613 178 184 210 
-1.297297 0.873874 -4.612613 178 183 210 
-1.288288 0.873874 -4.612613 178 184 211 
-1.279279 0.873874 -4.612613 178 185 213 
-1.270270 0.873874 -4.612613 177 185 215 
-1.261261 0.873874 -4.612613 178 186 216 
-1.252252 0.873874 -4.612613 180 188 216 
-1.243243 0.873874 -4.612613 182 189 218 
-1.234234 0.873874 -4.612613 182 190 221 
-1.225225 0.873874 -4.612613 181 191 222 
-1.216216 0.873874 -4.612613 181 192 224 
-1.207207 0.873874 -4.612613 180 192 224 
-1.198198 0.873874 -4.612613 181 192 224 
-1.189189 0.873874 -4.612613 183 193 225 
-1.160340 0.879320 -4.641360 185 196 234 
-1.151275 0.879320 -4.641360 188 198 236 
-1.141563 0.878822 -4.638731 191 200 238 
-1.132503 0.878822 -4.638731 192 201 238 
-1.117117 0.873874 -4.612613 191 201 238 
-1.108108 0.873874 -4.612613 192 202 240 
-6.375000 6.062500 -32.000000 202 216 255 
-6.312500 6.062500 -32.000000 200 216 255 
-6.250000 6.062500 -32.000000 200 216 255 
-6.187500 6.062500 -32.000000 200 216 255 
-6.125000 6.062500 -32.000000 200 216 255 
-6.062500 6.062500 -32.000000 201 216 255 
-6.000000 6.062500 -32.000000 201 216 255 
-5.937500 6.062500 -32.000000 201 216 255 
-5.875000 6.062500 -32.000000 200 216 255 
-5.812500 6.062500 -32.000000 200 216 255 
-5.750000 6.062500 -32.000000 200 216 255 
-5.687500 6.062500 -32.000000 200 216 255 
-5.625000 6.062500 -32.000000 201 217 255 
-5.353384 5.834587 -30.796993 200 216 255 
-5.101449 5.623188 -29.681160 199 215 255 
-4.867133 5.426573 -28.643356 197 215 255 
-4.664407 5.261017 -27.769491 196 215 255 
-4.610169 5.261017 -27.769491 196 214 255 
0.055556 1.077778 -5.688889 44 47 58 
0.066620 1.077030 -5.684941 85 91 111 
0.077562 1.074792 -5.673130 87 97 123 
0.087973 1.066667 -5.630240 94 107 137 
0.098901 1.065934 -5.626374 178 193 225 
0.109890 1.065934 -5.626374 208 224 254 
0.120713 1.064472 -5.618656 208 225 255 
0.131237 1.060834 -5.599453 206 226 255 
0.141980 1.059386 -5.591809 205 227 255 
0.152797 1.058663 -5.587995 204 227 255 
0.163711 1.058663 -5.587995 203 226 255 
0.360360 0.873874 -4.612613 221 220 234 
0.369369 0.873874 -4.612613 234 234 245 
0.378378 0.873874 -4.612613 248 248 254 
0.387387 0.873874 -4.612613 253 253 255 
0.396396 0.873874 -4.612613 253 254 254 
0.405405 0.873874 -4.612613 253 254 254 
0.414414 0.873874 -4.612613 253 254 254 
0.423423 0.873874 -4.612613 253 254 254 
0.432432 0.873874 -4.612613 253 254 254 
0.441441 0.873874 -4.612613 253 254 254 
0.450450 0.873874 -4.612613 253 254 254 
0.459459 0.873874 -4.612613 253 254 254 
0.468468 0.873874 -4.612613 253 254 254 
0.477477 0.873874 -4.612613 253 254 254 
0.486486 0.873874 -4.612613 253 254 254 
0.495495 0.873874 -4.612613 253 254 254 
0.504505 0.873874 -4.612613 253 254 254 
0.513514 0.873874 -4.612613 253 254 254 
0.522523 0.873874 -4.612613 253 254 254 
0.531532 0.873874 -4.612613 253 254 254 
0.540541 0.873874 -4.612613 253 254 254 
0.549550 0.873874 -4.612613 253 254 254 
0.558559 0.873874 -4.612613 253 254 254 
0.567568 0.873874 -4.612613 253 254 254 
0.576577 0.873874 -4.612613 253 254 254 
0.585586 0.873874 -4.612613 253 254 254 
0.594595 0.873874 -4.612613 253 254 254 
0.603604 0.873874 -4.612613 253 254 254 
0.612613 0.873874 -4.612613 253 254 254 
0.621622 0.873874 -4.612613 253 254 254 
0.630631 0.873874 -4.612613 253 254 254 
0.639640 0.873874 -4.612613 253 254 254 
0.648649 0.873874 -4.612613 253 254 254 
0.657658 0.873874 -4.612613 253 254 254 
0.666667 0.873874 -4.612613 253 254 254 
0.675676 0.873874 -4.612613 253 254 254 
0.684685 0.873874 -4.612613 253 254 254 
0.693694 0.873874 -4.612613 251 252 252 
0.702703 0.873874 -4.612613 250 251 251 
0.711712 0.873874 -4.612613 249 250 250 
0.720721 0.873874 -4.612613 249 249 251 
0.729730 0.873874 -4.612613 247 247 252 
0.738739 0.873874 -4.612613 246 246 252 
0.747748 0.873874 -4.612613 246 246 254 
0.756757 0.873874 -4.612613 246 245 255 
0.765766 0.873874 -4.612613 244 243 255 
0.774775 0.873874 -4.612613 243 242 255 
0.783784 0.873874 -4.612613 241 240 255 
0.792793 0.873874 -4.612613 241 240 255 
0.801802 0.873874 -4.612613 241 240 255 
0.810811 0.873874 -4.612613 240 239 255 
0.819820 0.873874 -4.612613 239 238 255 
0.828829 0.873874 -4.612613 239 238 255 
0.837838 0.873874 -4.612613 238 237 255 
0.846847 0.873874 -4.612613 236 234 255 
0.855856 0.873874 -4.612613 234 233 255 
0.864865 0.873874 -4.612613 234 233 255 
0.873874 0.873874 -4.612613 234 232 255 
0.882883 0.873874 -4.612613 233 232 255 
1.098673 0.895557 -4.727063 216 216 241 
1.104083 0.892467 -4.710753 215 215 238 
1.113284 0.892467 -4.710753 215 214 237 
1.122484 0.892467 -4.710753 216 215 236 
1.131685 0.892467 -4.710753 216 215 236 
1.140886 0.892467 -4.710753 216 215 235 
1.152074 0.894009 -4.718894 216 215 234 
1.161960 0.894525 -4.721614 215 214 232 
1.171857 0.895040 -4.724337 214 213 231 
1.181766 0.895557 -4.727063 213 212 229 
1.190998 0.895557 -4.727063 212 211 228 
1.199539 0.895040 -4.724337 211 210 226 
1.208069 0.894525 -4.721614 210 209 225 
1.214491 0.892467 -4.710753 208 207 224 
1.240666 0.891442 -4.705342 208 207 225 
1.249856 0.891442 -4.705342 207 206 223 
1.366743 0.883827 -4.665148 200 198 210 
1.375854 0.883827 -4.665148 200 198 209 
1.424658 0.885845 -4.675799 194 194 201 
1.509259 0.898148 -4.740741 192 191 198 
1.518519 0.898148 -4.740741 192 191 196 
1.527778 0.898148 -4.740741 192 191 196 
1.536148 0.897629 -4.737999 191 190 196 
1.543616 0.896592 -4.732524 188 188 194 
1.551963 0.896074 -4.729792 187 187 192 
1.561201 0.896074 -4.729792 187 187 191 
1.571346 0.896592 -4.732524 187 187 190 
1.581503 0.897110 -4.735260 187 187 190 
1.591671 0.897629 -4.737999 187 187 190 
1.601852 0.898148 -4.740741 186 187 190 
1.611111 0.898148 -4.740741 186 186 189 
1.707036 0.895040 -4.724337 180 179 181 
1.713299 0.893495 -4.716177 179 178 180 
1.722510 0.893495 -4.716177 178 178 179 
1.733718 0.894525 -4.721614 178 178 178 
1.744951 0.895557 -4.727063 178 178 178 
1.812389 0.915634 -4.833038 177 177 177 
1.818610 0.914016 -4.824500 177 177 177 
2.307868 0.884835 -4.670467 121 100 60 
2.310404 0.882320 -4.657192 122 101 60 
2.316865 0.881317 -4.651902 122 101 58 
2.320680 0.879320 -4.641360 121 101 59 
2.315315 0.873874 -4.612613 122 101 61 
2.324324 0.873874 -4.612613 122 102 62 
2.333333 0.873874 -4.612613 122 102 62 
2.342342 0.873874 -4.612613 121 101 60 
2.351351 0.873874 -4.612613 121 101 59 
2.360360 0.873874 -4.612613 119 100 57 
2.369369 0.873874 -4.612613 119 100 57 
2.378378 0.873874 -4.612613 118 100 56 
2.387387 0.873874 -4.612613 119 100 55 
2.396396 0.873874 -4.612613 120 100 54 
2.405406 0.873874 -4.612613 119 99 55 
8.978641 3.013592 -15.906796 116 97 55 
8.992249 3.007752 -15.875969 119 98 56 
9.023255 3.007752 -15.875969 119 99 57 
9.054263 3.007752 -15.875969 118 99 58 
9.102913 3.013592 -15.906796 116 99 57 
5.839704 1.913687 -10.101110 116 99 57 
5.873919 1.918418 -10.126081 117 99 58 
5.930348 1.930348 -10.189054 119 99 56 
5.957659 1.932752 -10.201743 119 97 53 
5.985037 1.935162 -10.214464 109 86 44 
6.004988 1.935162 -10.214464 78 56 25 
6.032459 1.937578 -10.227216 130 110 84 
6.052434 1.937578 -10.227216 154 141 119 
6.072410 1.937578 -10.227216 154 144 127 
6.092384 1.937578 -10.227216 144 136 122 
6.112360 1.937578 -10.227216 86 82 72 
7.909823 2.499195 -13.191627 37 36 29 
7.948387 2.503226 -13.212903 29 29 22 
7.961353 2.499195 -13.191627 41 41 31 
7.948718 2.487180 -13.128205 106 107 93 
7.974359 2.487180 -13.128205 145 146 131 
8.000000 2.487180 -13.128205 150 151 136 
-1.864865 0.864865 -4.612613 149 151 165 
-1.855856 0.864865 -4.612613 147 152 165 
-1.846847 0.864865 -4.612613 147 152 164 
-1.837838 0.864865 -4.612613 147 153 163 
-1.828829 0.864865 -4.612613 148 153 163 
-1.819820 0.864865 -4.612613 150 153 163 
-1.810811 0.864865 -4.612613 151 154 164 
-1.813031 0.870255 -4.641360 151 154 166 
-1.804989 0.870748 -4.643991 152 156 168 
-1.795918 0.870748 -4.643991 153 157 169 
-1.779817 0.880734 -4.697248 156 156 172 
-1.769627 0.880229 -4.694556 157 157 175 
-1.760458 0.880229 -4.694556 157 157 176 
-1.750286 0.879725 -4.691867 157 157 175 
-1.741123 0.879725 -4.691867 157 158 175 
-1.731959 0.879725 -4.691867 158 158 176 
-1.722795 0.879725 -4.691867 156 158 176 
-1.713631 0.879725 -4.691867 155 158 176 
-1.369369 0.864865 -4.612613 176 179 205 
-1.360360 0.864865 -4.612613 174 178 206 
-1.351351 0.864865 -4.612613 173 179 206 
-1.342342 0.864865 -4.612613 175 182 207 
-1.333333 0.864865 -4.612613 175 183 208 
-1.324324 0.864865 -4.612613 175 183 209 
-1.315315 0.864865 -4.612613 177 184 210 
-1.306306 0.864865 -4.612613 177 184 210 
-1.297297 0.864865 -4.612613 178 183 210 
-1.288288 0.864865 -4.612613 179 185 211 
-1.279279 0.864865 -4.612613 179 186 212 
-1.270270 0.864865 -4.612613 178 186 214 
-1.261261 0.864865 -4.612613 178 187 216 
-1.252252 0.864865 -4.612613 180 188 216 
-1.243243 0.864865 -4.612613 183 189 218 
-1.234234 0.864865 -4.612613 184 191 219 
-1.225225 0.864865 -4.612613 183 191 221 
-1.216216 0.864865 -4.612613 182 191 222 
-1.207207 0.864865 -4.612613 181 191 224 
-1.198198 0.864865 -4.612613 181 191 225 
-1.189189 0.864865 -4.612613 183 193 227 
-1.180180 0.864865 -4.612613 185 194 228 
-1.160340 0.870255 -4.641360 187 197 235 
-1.151275 0.870255 -4.641360 189 198 237 
-1.141563 0.869762 -4.638731 192 199 237 
-1.131862 0.869270 -4.636106 193 200 238 
-1.117117 0.864865 -4.612613 193 200 238 
-1.108108 0.864865 -4.612613 193 201 240 
-6.437500 6.000000 -32.000000 200 216 255 
-6.375000 6.000000 -32.000000 200 215 255 
-6.312500 6.000000 -32.000000 199 216 255 
-6.250000 6.000000 -32.000000 200 216 255 
-6.187500 6.000000 -32.000000 200 216 255 
-6.125000 6.000000 -32.000000 200 216 255 
-6.062500 6.000000 -32.000000 200 216 255 
-6.000000 6.000000 -32.000000 200 216 255 
-5.937500 6.000000 -32.000000 200 216 255 
-5.875000 6.000000 -32.000000 200 216 255 
-5.812500 6.000000 -32.000000 200 216 255 
-5.750000 6.000000 -32.000000 200 216 255 
-5.687500 6.000000 -32.000000 200 216 255 
-5.625000 6.000000 -32.000000 199 216 255 
-5.313433 5.731343 -30.567163 199 216 255 
-5.101449 5.565217 -29.681160 198 215 255 
-4.850174 5.351916 -28.543554 198 215 255 
-4.648649 5.189189 -27.675676 196 213 255 
-4.563758 5.154362 -27.489933 196 213 255 
0.044444 1.066667 -5.688889 17 18 22 
0.055556 1.066667 -5.688889 46 49 59 
0.066620 1.065926 -5.684941 87 94 110 
0.077562 1.063712 -5.673130 85 97 120 
0.088033 1.056396 -5.634113 96 110 139 
0.098901 1.054945 -5.626374 182 197 229 
0.109890 1.054945 -5.626374 207 224 255 
0.120796 1.054221 -5.622512 207 225 255 
0.131327 1.050616 -5.603283 207 226 255 
0.142174 1.049897 -5.599453 205 226 255 
0.152901 1.048464 -5.591809 204 227 255 
0.163823 1.048464 -5.591809 203 226 255 
0.360360 0.864865 -4.612613 219 218 230 
0.369369 0.864865 -4.612613 235 235 245 
0.378378 0.864865 -4.612613 249 249 254 
0.387387 0.864865 -4.612613 253 253 254 
0.396396 0.864865 -4.612613 253 254 254 
0.405405 0.864865 -4.612613 253 254 254 
0.414414 0.864865 -4.612613 253 254 254 
0.423423 0.864865 -4.612613 253 254 254 
0.432432 0.864865 -4.612613 253 254 254 
0.441441 0.864865 -4.612613 253 254 254 
0.450450 0.864865 -4.612613 253 254 254 
0.459459 0.864865 -4.612613 253 254 254 
0.468468 0.864865 -4.612613 253 254 254 
0.477477 0.864865 -4.612613 253 254 254 
0.486486 0.864865 -4.612613 253 254 254 
0.495495 0.864865 -4.612613 253 254 254 
0.504505 0.864865 -4.612613 253 254 254 
0.513514 0.864865 -4.612613 253 254 254 
0.522523 0.864865 -4.612613 253 254 254 
0.531532 0.864865 -4.612613 253 254 254 
0.540541 0.864865 -4.612613 253 254 254 
0.549550 0.864865 -4.612613 253 254 254 
0.558559 0.864865 -4.612613 253 254 254 
0.567568 0.864865 -4.612613 253 254 254 
0.576577 0.864865 -4.612613 253 254 254 
0.585586 0.864865 -4.612613 253 254 254 
0.594595 0.864865 -4.612613 253 254 254 
0.603604 0.864865 -4.612613 253 254 254 
0.612613 0.864865 -4.612613 253 254 254 
0.621622 0.864865 -4.612613 253 254 254 
0.630631 0.864865 -4.612613 253 254 254 
0.639640 0.864865 -4.612613 253 254 254 
0.648649 0.864865 -4.612613 253 254 254 
0.657658 0.864865 -4.612613 253 254 254 
0.666667 0.864865 -4.612613 253 254 254 
0.675676 0.864865 -4.612613 253 254 254 
0.684685 0.864865 -4.612613 253 254 254 
0.693694 0.864865 -4.612613 251 252 252 
0.702703 0.864865 -4.612613 250 251 251 
0.711712 0.864865 -4.612613 250 250 251 
0.720721 0.864865 -4.612613 249 249 251 
0.729730 0.864865 -4.612613 248 248 253 
0.738739 0.864865 -4.612613 247 247 253 
0.747748 0.864865 -4.612613 246 246 254 
0.756757 0.864865 -4.612613 245 244 255 
0.765766 0.864865 -4.612613 243 242 255 
0.774775 0.864865 -4.612613 243 242 255 
0.783784 0.864865 -4.612613 242 241 255 
0.792793 0.864865 -4.612613 241 240 255 
0.801802 0.864865 -4.612613 240 240 255 
0.810811 0.864865 -4.612613 240 239 255 
0.819820 0.864865 -4.612613 240 239 255 
0.828829 0.864865 -4.612613 239 238 255 
0.837838 0.864865 -4.612613 238 236 255 
0.846847 0.864865 -4.612613 236 234 255 
0.855856 0.864865 -4.612613 235 233 255 
0.864865 0.864865 -4.612613 235 233 255 
0.873874 0.864865 -4.612613 235 233 255 
0.882883 0.864865 -4.612613 234 233 254 
0.891892 0.864865 -4.612613 233 232 253 
0.900901 0.864865 -4.612613 233 231 253 
0.909910 0.864865 -4.612613 232 231 254 
0.918919 0.864865 -4.612613 232 230 253 
0.927928 0.864865 -4.612613 230 229 250 
1.089440 0.886324 -4.727063 218 217 240 
1.096143 0.884283 -4.716177 216 216 239 
1.104083 0.883266 -4.710753 216 215 239 
1.113284 0.883266 -4.710753 217 216 239 
1.121839 0.882759 -4.708046 217 215 237 
1.131034 0.882759 -4.708046 216 215 235 
1.140230 0.882759 -4.708046 216 214 233 
1.150086 0.883266 -4.710753 215 214 232 
1.159287 0.883266 -4.710753 215 214 232 
1.169833 0.884283 -4.716177 215 214 231 
1.181084 0.885813 -4.724337 214 213 230 
1.190311 0.885813 -4.724337 213 212 230 
1.198847 0.885303 -4.721614 212 211 230 
1.203906 0.882252 -4.705342 210 209 228 
1.211704 0.881239 -4.699943 209 208 227 
1.220883 0.881239 -4.699943 209 208 226 
1.230769 0.881745 -4.702641 208 207 225 
1.238532 0.880734 -4.697248 207 206 224 
1.247706 0.880734 -4.697248 207 206 222 
1.258324 0.881745 -4.702641 207 206 221 
1.318931 0.873223 -4.657192 201 201 209 
1.346219 0.873223 -4.657192 201 199 213 
1.354545 0.872727 -4.654545 201 199 213 
1.363636 0.872727 -4.654545 200 198 212 
1.375071 0.874217 -4.662493 200 198 211 
1.415525 0.876712 -4.675799 195 196 203 
1.418988 0.873223 -4.657192 195 196 203 
1.429710 0.874217 -4.662493 193 193 201 
1.509259 0.888889 -4.740741 192 191 200 
1.518519 0.888889 -4.740741 192 190 200 
1.527778 0.888889 -4.740741 192 191 200 
1.537037 0.888889 -4.740741 190 190 197 
1.545402 0.888375 -4.737999 188 188 195 
1.552860 0.887348 -4.732524 187 187 194 
1.562103 0.887348 -4.732524 187 187 192 
1.571346 0.887348 -4.732524 186 186 190 
1.582418 0.888375 -4.737999 186 186 189 
1.592593 0.888889 -4.740741 186 187 188 
1.601852 0.888889 -4.740741 186 187 187 
1.611111 0.888889 -4.740741 187 188 188 
1.620370 0.888889 -4.740741 186 186 187 
1.630573 0.889404 -4.743486 185 185 186 
1.709007 0.886836 -4.729792 180 179 181 
1.715274 0.885303 -4.721614 180 179 181 
1.724496 0.885303 -4.721614 180 179 180 
1.733718 0.885303 -4.721614 179 179 180 
1.744951 0.886324 -4.727063 178 178 180 
1.757225 0.887861 -4.735260 178 177 180 
1.782964 0.896149 -4.779463 177 177 178 
1.804935 0.902468 -4.813161 177 177 177 
1.806905 0.898771 -4.793447 177 177 177 
1.823737 0.902468 -4.813161 177 177 177 
2.316865 0.872232 -4.651902 119 100 60 
2.306306 0.864865 -4.612613 119 100 61 
2.315315 0.864865 -4.612613 119 101 61 
2.324324 0.864865 -4.612613 119 101 60 
2.333333 0.864865 -4.612613 119 101 58 
2.342342 0.864865 -4.612613 119 100 56 
2.351351 0.864865 -4.612613 119 100 55 
2.360360 0.864865 -4.612613 117 100 55 
2.369369 0.864865 -4.612613 117 100 56 
2.378378 0.864865 -4.612613 117 100 56 
2.387387 0.864865 -4.612613 118 99 55 
2.396396 0.864865 -4.612613 119 100 56 
2.405406 0.864865 -4.612613 119 100 57 
9.009708 2.982524 -15.906796 116 98 58 
9.023255 2.976744 -15.875969 117 98 58 
9.071845 2.982524 -15.906796 116 98 58 
5.992509 1.917603 -10.227216 107 85 45 
6.012485 1.917603 -10.227216 79 58 26 
6.032459 1.917603 -10.227216 130 111 86 
6.052434 1.917603 -10.227216 153 140 120 
6.072410 1.917603 -10.227216 153 144 128 
6.092384 1.917603 -10.227216 156 148 135 
6.112360 1.917603 -10.227216 121 115 105 
6.132335 1.917603 -10.227216 59 55 48 
7.922830 2.469453 -13.170418 31 30 24 
7.948553 2.469453 -13.170418 32 32 24 
7.948718 2.461539 -13.128205 81 82 71 
7.974359 2.461539 -13.128205 141 142 129 
7.987200 2.457600 -13.107200 150 151 137 
8.025641 2.461539 -13.128205 152 153 140 
-1.855856 0.855856 -4.612613 146 151 164 
-1.846847 0.855856 -4.612613 145 152 163 
-1.837838 0.855856 -4.612613 145 153 161 
-1.828829 0.855856 -4.612613 146 153 161 
-1.819820 0.855856 -4.612613 149 153 163 
-1.769627 0.871060 -4.694556 156 156 176 
-1.760458 0.871060 -4.694556 156 157 176 
-1.750286 0.870561 -4.691867 156 157 174 
-1.741123 0.870561 -4.691867 157 157 174 
-1.731959 0.870561 -4.691867 158 158 176 
-1.722795 0.870561 -4.691867 158 158 176 
-1.714613 0.871060 -4.694556 157 158 176 
-1.679862 0.872060 -4.699943 159 159 177 
-1.369369 0.855856 -4.612613 174 178 204 
-1.360360 0.855856 -4.612613 174 179 205 
-1.351351 0.855856 -4.612613 174 181 206 
-1.342342 0.855856 -4.612613 175 182 207 
-1.333333 0.855856 -4.612613 175 183 207 
-1.324324 0.855856 -4.612613 174 183 208 
-1.315315 0.855856 -4.612613 176 184 210 
-1.306306 0.855856 -4.612613 177 184 210 
-1.297297 0.855856 -4.612613 178 184 210 
-1.288288 0.855856 -4.612613 178 185 211 
-1.279279 0.855856 -4.612613 179 186 212 
-1.270270 0.855856 -4.612613 178 186 214 
-1.261261 0.855856 -4.612613 179 188 216 
-1.252252 0.855856 -4.612613 182 189 217 
-1.243243 0.855856 -4.612613 185 191 218 
-1.234234 0.855856 -4.612613 186 191 218 
-1.225225 0.855856 -4.612613 185 192 219 
-1.216216 0.855856 -4.612613 183 192 221 
-1.207207 0.855856 -4.612613 182 191 223 
-1.198198 0.855856 -4.612613 182 192 224 
-1.189189 0.855856 -4.612613 183 193 226 
-1.180180 0.855856 -4.612613 186 195 228 
-1.171171 0.855856 -4.612613 188 197 230 
-1.150623 0.860702 -4.638731 190 198 233 
-1.140917 0.860215 -4.636106 191 198 236 
-1.131862 0.860215 -4.636106 192 199 237 
-1.117117 0.855856 -4.612613 192 200 238 
-1.108108 0.855856 -4.612613 192 201 240 
-6.437500 5.937500 -32.000000 198 215 255 
-6.375000 5.937500 -32.000000 199 216 255 
-6.312500 5.937500 -32.000000 199 216 255 
-6.250000 5.937500 -32.000000 200 216 255 
-6.187500 5.937500 -32.000000 200 216 255 
-6.125000 5.937500 -32.000000 200 216 255 
-5.937500 5.937500 -32.000000 200 216 255 
-5.875000 5.937500 -32.000000 200 216 255 
-5.812500 5.937500 -32.000000 200 216 255 
-5.750000 5.937500 -32.000000 200 216 255 
-5.687500 5.937500 -32.000000 200 216 255 
-5.625000 5.937500 -32.000000 199 216 255 
-5.274074 5.629630 -30.340740 199 216 255 
-5.083033 5.487365 -29.574007 198 215 255 
-4.833333 5.277778 -28.444445 198 215 255 
-4.617450 5.100671 -27.489933 198 214 255 
-4.401295 4.919094 -26.511328 197 213 255 
-4.349514 4.919094 -26.511328 196 212 255 
0.044444 1.055556 -5.688889 17 18 21 
0.055556 1.055556 -5.688889 49 53 63 
0.066620 1.054823 -5.684941 91 98 115 
0.077562 1.052632 -5.673130 90 99 123 
0.088033 1.045392 -5.634113 101 113 142 
0.098969 1.044674 -5.630240 185 200 233 
0.109890 1.043956 -5.626374 206 224 255 
0.120796 1.043239 -5.622512 205 224 255 
0.131417 1.040383 -5.607119 205 225 255 
0.142174 1.038961 -5.599453 204 226 255 
0.153005 1.038251 -5.595628 203 226 255 
0.163934 1.038251 -5.595628 201 225 255 
0.360360 0.855856 -4.612613 219 218 230 
0.369369 0.855856 -4.612613 236 236 246 
0.378378 0.855856 -4.612613 249 249 254 
0.387387 0.855856 -4.612613 253 253 254 
0.396396 0.855856 -4.612613 253 254 254 
0.405405 0.855856 -4.612613 253 254 254 
0.414414 0.855856 -4.612613 253 254 254 
0.423423 0.855856 -4.612613 253 254 254 
0.432432 0.855856 -4.612613 253 254 254 
0.441441 0.855856 -4.612613 253 254 254 
0.450450 0.855856 -4.612613 253 254 254 
0.459459 0.855856 -4.612613 253 254 254 
0.468468 0.855856 -4.612613 253 254 254 
0.477477 0.855856 -4.612613 253 254 254 
0.486486 0.855856 -4.612613 253 254 254 
0.495495 0.855856 -4.612613 253 254 254 
0.504505 0.855856 -4.612613 253 254 254 
0.513514 0.855856 -4.612613 253 254 254 
0.522523 0.855856 -4.612613 253 254 254 
0.531532 0.855856 -4.612613 253 254 254 
0.540541 0.855856 -4.612613 253 254 254 
0.549550 0.855856 -4.612613 253 254 254 
0.558559 0.855856 -4.612613 253 254 254 
0.567568 0.855856 -4.612613 253 254 254 
0.576577 0.855856 -4.612613 253 254 254 
0.585586 0.855856 -4.612613 253 254 254 
0.594595 0.855856 -4.612613 253 254 254 
0.603604 0.855856 -4.612613 253 254 254 
0.612613 0.855856 -4.612613 253 254 254 
0.621622 0.855856 -4.612613 253 254 254 
0.630631 0.855856 -4.612613 253 254 254 
0.639640 0.855856 -4.612613 253 254 254 
0.648649 0.855856 -4.612613 253 254 254 
0.657658 0.855856 -4.612613 253 254 254 
0.666667 0.855856 -4.612613 253 254 254 
0.675676 0.855856 -4.612613 253 254 254 
0.684685 0.855856 -4.612613 252 253 253 
0.693694 0.855856 -4.612613 251 252 252 
0.702703 0.855856 -4.612613 250 251 251 
0.711712 0.855856 -4.612613 250 251 251 
0.720721 0.855856 -4.612613 249 250 251 
0.729730 0.855856 -4.612613 248 248 252 
0.738739 0.855856 -4.612613 247 247 253 
0.747748 0.855856 -4.612613 245 245 254 
0.756757 0.855856 -4.612613 245 244 255 
0.765766 0.855856 -4.612613 243 242 255 
0.774775 0.855856 -4.612613 242 242 255 
0.783784 0.855856 -4.612613 242 241 255 
0.792793 0.855856 -4.612613 241 240 255 
0.801802 0.855856 -4.612613 239 240 255 
0.810811 0.855856 -4.612613 239 239 255 
0.819820 0.855856 -4.612613 239 239 255 
0.828829 0.855856 -4.612613 239 238 255 
0.837838 0.855856 -4.612613 239 237 255 
0.846847 0.855856 -4.612613 237 236 255 
0.855856 0.855856 -4.612613 236 234 255 
0.864865 0.855856 -4.612613 235 233 255 
0.873874 0.855856 -4.612613 235 233 255 
0.882883 0.855856 -4.612613 233 232 255 
0.891892 0.855856 -4.612613 233 231 254 
0.900901 0.855856 -4.612613 232 231 254 
0.909910 0.855856 -4.612613 232 230 254 
0.918919 0.855856 -4.612613 231 229 253 
0.927928 0.855856 -4.612613 229 228 250 
0.936937 0.855856 -4.612613 229 228 249 
0.945946 0.855856 -4.612613 229 228 249 
0.954955 0.855856 -4.612613 227 226 249 
1.089440 0.877092 -4.727063 219 217 240 
1.096143 0.875072 -4.716177 219 218 239 
1.104083 0.874066 -4.710753 219 217 238 
1.112644 0.873563 -4.708046 219 218 239 
1.121195 0.873061 -4.705342 218 217 238 
1.129736 0.872560 -4.702641 217 215 236 
1.138921 0.872560 -4.702641 216 215 235 
1.148765 0.873061 -4.705342 215 214 234 
1.157955 0.873061 -4.705342 215 214 233 
1.167145 0.873061 -4.705342 215 214 231 
1.176335 0.873061 -4.705342 215 214 230 
1.186889 0.874066 -4.710753 214 213 230 
1.194716 0.873061 -4.705342 212 211 231 
1.202524 0.872060 -4.699943 210 209 230 
1.211704 0.872060 -4.699943 210 209 230 
1.220883 0.872060 -4.699943 209 208 229 
1.229358 0.871560 -4.697248 208 207 227 
1.237822 0.871060 -4.694556 207 206 224 
1.246277 0.870561 -4.691867 207 206 223 
1.256881 0.871560 -4.697248 207 206 223 
1.309091 0.863636 -4.654545 203 203 210 
1.318182 0.863636 -4.654545 202 202 209 
1.327273 0.863636 -4.654545 202 201 209 
1.336364 0.863636 -4.654545 201 200 211 
1.345455 0.863636 -4.654545 201 199 211 
1.354545 0.863636 -4.654545 201 200 211 
1.363636 0.863636 -4.654545 201 200 210 
1.372727 0.863636 -4.654545 200 199 208 
1.409892 0.864127 -4.657192 196 196 203 
1.418182 0.863636 -4.654545 195 195 202 
1.427273 0.863636 -4.654545 193 193 201 
1.510133 0.880139 -4.743486 192 191 201 
1.519398 0.880139 -4.743486 192 190 201 
1.528662 0.880139 -4.743486 192 191 200 
1.537927 0.880139 -4.743486 191 191 198 
1.546296 0.879630 -4.740741 189 189 196 
1.553757 0.878613 -4.735260 188 188 195 
1.563006 0.878613 -4.735260 188 188 194 
1.572254 0.878613 -4.735260 187 187 193 
1.582418 0.879121 -4.737999 187 187 191 
1.592593 0.879630 -4.740741 186 186 188 
1.601852 0.879630 -4.740741 186 187 187 
1.611111 0.879630 -4.740741 186 187 187 
1.620370 0.879630 -4.740741 186 186 186 
1.629630 0.879630 -4.740741 186 186 186 
1.639838 0.880139 -4.743486 186 186 186 
1.702718 0.879121 -4.737999 181 180 183 
1.709007 0.877598 -4.729792 181 180 183 
1.715274 0.876081 -4.721614 180 180 181 
1.724496 0.876081 -4.721614 181 180 181 
1.733718 0.876081 -4.721614 180 180 182 
1.742939 0.876081 -4.721614 179 178 181 
1.754184 0.877092 -4.727063 178 177 181 
1.766474 0.878613 -4.735260 178 177 179 
1.792299 0.886814 -4.779463 177 177 177 
1.802685 0.887332 -4.782253 177 177 177 
1.814144 0.888369 -4.787843 177 177 177 
2.306306 0.855856 -4.612613 119 102 61 
2.315315 0.855856 -4.612613 119 102 61 
2.324324 0.855856 -4.612613 118 101 58 
2.333333 0.855856 -4.612613 118 100 56 
2.342342 0.855856 -4.612613 119 100 56 
2.351351 0.855856 -4.612613 118 100 55 
2.360360 0.855856 -4.612613 117 100 55 
2.369369 0.855856 -4.612613 117 100 56 
2.378378 0.855856 -4.612613 117 100 56 
2.387387 0.855856 -4.612613 117 99 56 
2.396396 0.855856 -4.612613 118 100 57 
2.405406 0.855856 -4.612613 118 101 58 
9.040776 2.951456 -15.906796 114 97 56 
6.012485 1.897628 -10.227216 78 58 25 
6.032459 1.897628 -10.227216 128 112 84 
6.052434 1.897628 -10.227216 150 139 117 
6.072410 1.897628 -10.227216 152 144 126 
6.092384 1.897628 -10.227216 156 150 135 
6.112360 1.897628 -10.227216 147 141 129 
6.132335 1.897628 -10.227216 91 85 77 
7.910112 2.439807 -13.149278 46 42 36 
7.935794 2.439807 -13.149278 40 39 31 
7.948718 2.435897 -13.128205 84 84 74 
7.961600 2.432000 -13.107200 138 139 126 
7.987200 2.432000 -13.107200 149 150 136 
8.012800 2.432000 -13.107200 153 154 140 
-1.961905 0.895238 -4.876191 146 152 162 
-1.952381 0.895238 -4.876191 145 153 161 
-1.771658 0.862880 -4.699943 155 156 173 
-1.761468 0.862385 -4.697248 156 157 173 
-1.752294 0.862385 -4.697248 156 157 173 
-1.743119 0.862385 -4.697248 157 157 174 
-1.733945 0.862385 -4.697248 158 158 175 
-1.723782 0.861891 -4.694556 158 158 175 
-1.715596 0.862385 -4.697248 158 158 175 
-1.706422 0.862385 -4.697248 158 158 175 
-1.697248 0.862385 -4.697248 158 158 176 
-1.688073 0.862385 -4.697248 158 158 176 
-1.679862 0.862880 -4.699943 158 158 176 
-1.369369 0.846847 -4.612613 170 178 204 
-1.360360 0.846847 -4.612613 172 179 205 
-1.351351 0.846847 -4.612613 174 181 207 
-1.342342 0.846847 -4.612613 174 182 208 
-1.333333 0.846847 -4.612613 174 183 208 
-1.324324 0.846847 -4.612613 174 183 209 
-1.315315 0.846847 -4.612613 176 183 210 
-1.306306 0.846847 -4.612613 177 184 210 
-1.297297 0.846847 -4.612613 177 184 210 
-1.288288 0.846847 -4.612613 178 185 211 
-1.279279 0.846847 -4.612613 178 185 211 
-1.270270 0.846847 -4.612613 178 186 213 
-1.261261 0.846847 -4.612613 179 187 214 
-1.252252 0.846847 -4.612613 181 188 216 
-1.243243 0.846847 -4.612613 184 191 218 
-1.234234 0.846847 -4.612613 185 191 219 
-1.225225 0.846847 -4.612613 184 192 221 
-1.216216 0.846847 -4.612613 183 192 222 
-1.207207 0.846847 -4.612613 182 192 224 
-1.198198 0.846847 -4.612613 181 192 225 
-1.189189 0.846847 -4.612613 182 193 226 
-1.180180 0.846847 -4.612613 184 194 226 
-1.171171 0.846847 -4.612613 185 195 227 
-1.140917 0.851160 -4.636106 191 199 236 
-1.131862 0.851160 -4.636106 190 199 237 
-1.117117 0.846847 -4.612613 190 200 239 
-1.108108 0.846847 -4.612613 191 200 240 
-6.437500 5.875000 -32.000000 197 216 255 
-6.375000 5.875000 -32.000000 198 216 255 
-6.312500 5.875000 -32.000000 199 217 255 
-6.250000 5.875000 -32.000000 199 216 255 
-6.187500 5.875000 -32.000000 199 216 255 
-6.125000 5.875000 -32.000000 199 216 255 
-5.714286 5.654135 -30.796993 201 216 255 
-5.654135 5.654135 -30.796993 200 216 255 
-5.593985 5.654135 -30.796993 200 216 255 
-5.750000 5.875000 -32.000000 200 216 255 
-5.473684 5.654135 -30.796993 200 216 255 
-5.393259 5.632959 -30.681648 200 216 255 
-5.235294 5.529412 -30.117647 200 216 255 
-5.064748 5.410072 -29.467627 199 215 255 
-4.833333 5.222222 -28.444445 199 215 255 
-4.617450 5.046980 -27.489933 199 215 255 
-4.401295 4.867314 -26.511328 197 213 255 
-4.349514 4.867314 -26.511328 196 212 255 
0.055556 1.044444 -5.688889 56 56 70 
0.066620 1.043720 -5.684941 95 98 118 
0.077509 1.040830 -5.669204 89 96 122 
0.088033 1.034388 -5.634113 104 114 147 
0.098969 1.033677 -5.630240 187 202 235 
0.109890 1.032967 -5.626374 208 226 255 
0.120796 1.032258 -5.622512 205 225 255 
0.131507 1.030137 -5.610959 204 226 255 
0.142271 1.028728 -5.603283 202 226 255 
0.153110 1.028025 -5.599453 203 226 255 
0.164046 1.028025 -5.599453 203 226 255 
0.360360 0.846847 -4.612613 218 218 227 
0.369369 0.846847 -4.612613 237 237 245 
0.378378 0.846847 -4.612613 250 250 254 
0.387387 0.846847 -4.612613 253 253 254 
0.396396 0.846847 -4.612613 253 254 254 
0.405405 0.846847 -4.612613 253 254 254 
0.414414 0.846847 -4.612613 253 254 254 
0.423423 0.846847 -4.612613 253 254 254 
0.432432 0.846847 -4.612613 253 254 254 
0.441441 0.846847 -4.612613 253 254 254 
0.450450 0.846847 -4.612613 253 254 254 
0.459459 0.846847 -4.612613 253 254 254 
0.468468 0.846847 -4.612613 253 254 254 
0.477477 0.846847 -4.612613 253 254 254 
0.486486 0.846847 -4.612613 253 254 254 
0.495495 0.846847 -4.612613 253 254 254 
0.504505 0.846847 -4.612613 253 254 254 
0.513514 0.846847 -4.612613 253 254 254 
0.522523 0.846847 -4.612613 253 254 254 
0.531532 0.846847 -4.612613 253 254 254 
0.540541 0.846847 -4.612613 253 254 254 
0.549550 0.846847 -4.612613 253 254 254 
0.558559 0.846847 -4.612613 253 254 254 
0.567568 0.846847 -4.612613 253 254 254 
0.576577 0.846847 -4.612613 253 254 254 
0.585586 0.846847 -4.612613 253 254 254 
0.594595 0.846847 -4.612613 253 254 254 
0.603604 0.846847 -4.612613 253 254 254 
0.612613 0.846847 -4.612613 253 254 254 
0.621622 0.846847 -4.612613 253 254 254 
0.630631 0.846847 -4.612613 253 254 254 
0.639640 0.846847 -4.612613 253 254 254 
0.648649 0.846847 -4.612613 253 254 254 
0.657658 0.846847 -4.612613 253 254 254 
0.666667 0.846847 -4.612613 253 254 254 
0.675676 0.846847 -4.612613 253 254 254 
0.684685 0.846847 -4.612613 252 253 253 
0.693694 0.846847 -4.612613 251 252 252 
0.702703 0.846847 -4.612613 250 251 251 
0.711712 0.846847 -4.612613 249 250 250 
0.720721 0.846847 -4.612613 249 249 251 
0.729730 0.846847 -4.612613 248 248 252 
0.738739 0.846847 -4.612613 246 246 253 
0.747748 0.846847 -4.612613 246 246 254 
0.756757 0.846847 -4.612613 245 245 255 
0.765766 0.846847 -4.612613 243 242 255 
0.774775 0.846847 -4.612613 241 241 255 
0.783784 0.846847 -4.612613 241 240 255 
0.792793 0.846847 -4.612613 240 240 255 
0.801802 0.846847 -4.612613 240 240 255 
0.810811 0.846847 -4.612613 239 239 255 
0.819820 0.846847 -4.612613 239 239 255 
0.828829 0.846847 -4.612613 239 238 255 
0.837838 0.846847 -4.612613 239 237 255 
0.846847 0.846847 -4.612613 238 236 255 
0.855856 0.846847 -4.612613 236 234 255 
0.864865 0.846847 -4.612613 235 233 255 
0.873874 0.846847 -4.612613 233 232 255 
0.882883 0.846847 -4.612613 232 231 255 
0.891892 0.846847 -4.612613 232 231 255 
0.900901 0.846847 -4.612613 232 231 255 
0.909910 0.846847 -4.612613 232 231 255 
0.918919 0.846847 -4.612613 231 230 253 
0.927928 0.846847 -4.612613 230 229 251 
0.936937 0.846847 -4.612613 230 228 250 
0.945946 0.846847 -4.612613 229 227 250 
0.954955 0.846847 -4.612613 228 226 250 
0.963964 0.846847 -4.612613 227 225 250 
1.095512 0.865362 -4.713464 220 219 240 
1.102814 0.863871 -4.705342 219 218 238 
1.111366 0.863375 -4.702641 218 217 237 
1.119908 0.862880 -4.699943 217 216 237 
1.128440 0.862385 -4.697248 216 215 236 
1.137615 0.862385 -4.697248 215 214 235 
1.146789 0.862385 -4.697248 216 215 235 
1.155963 0.862385 -4.697248 215 214 233 
1.167145 0.863871 -4.705342 215 214 231 
1.176335 0.863871 -4.705342 216 215 230 
1.186889 0.864865 -4.710753 214 213 230 
1.196090 0.864865 -4.710753 212 211 231 
1.202524 0.862880 -4.699943 211 210 231 
1.237113 0.861398 -4.691867 207 206 224 
1.245564 0.860904 -4.689181 208 207 224 
1.253288 0.859920 -4.683819 207 206 224 
1.255973 0.855518 -4.659841 207 206 222 
1.264355 0.855031 -4.657192 207 206 220 
1.272727 0.854545 -4.654545 206 205 217 
1.282547 0.855031 -4.657192 205 205 215 
1.290909 0.854545 -4.654545 204 204 213 
1.300000 0.854545 -4.654545 204 204 212 
1.309091 0.854545 -4.654545 203 203 211 
1.318182 0.854545 -4.654545 202 202 210 
1.327273 0.854545 -4.654545 201 201 210 
1.336364 0.854545 -4.654545 201 200 209 
1.345455 0.854545 -4.654545 201 200 209 
1.354545 0.854545 -4.654545 201 200 210 
1.362862 0.854060 -4.651902 201 199 210 
1.371948 0.854060 -4.651902 200 198 208 
1.380250 0.853575 -4.649262 199 198 206 
1.400000 0.854545 -4.654545 198 197 203 
1.408291 0.854060 -4.651902 197 196 202 
1.416572 0.853575 -4.649262 195 194 203 
1.425653 0.853575 -4.649262 194 193 204 
1.510133 0.870874 -4.743486 193 192 201 
1.519398 0.870874 -4.743486 193 192 200 
1.528662 0.870874 -4.743486 192 191 199 
1.537927 0.870874 -4.743486 191 190 197 
1.546296 0.870370 -4.740741 189 189 196 
1.553757 0.869364 -4.735260 189 189 195 
1.563006 0.869364 -4.735260 188 188 195 
1.572254 0.869364 -4.735260 187 187 194 
1.582418 0.869867 -4.737999 187 187 192 
1.592593 0.870370 -4.740741 186 186 190 
1.601852 0.870370 -4.740741 185 186 188 
1.611111 0.870370 -4.740741 186 186 188 
1.620370 0.870370 -4.740741 185 186 186 
1.629630 0.870370 -4.740741 186 186 187 
1.638889 0.870370 -4.740741 187 186 188 
1.648148 0.870370 -4.740741 187 186 188 
1.655491 0.869364 -4.735260 186 185 187 
1.662818 0.868360 -4.729792 185 184 187 
1.673021 0.868862 -4.732524 185 184 187 
1.683237 0.869364 -4.735260 184 183 188 
1.692486 0.869364 -4.735260 182 182 186 
1.700751 0.868862 -4.732524 182 181 185 
1.707036 0.867359 -4.724337 182 181 185 
1.715274 0.866859 -4.721614 181 180 183 
1.720529 0.864865 -4.710753 181 180 183 
1.729730 0.864865 -4.710753 180 179 182 
1.738930 0.864865 -4.710753 179 179 182 
1.750144 0.865861 -4.716177 179 178 182 
1.761383 0.866859 -4.721614 179 178 181 
1.777778 0.870370 -4.740741 178 178 179 
1.801634 0.877480 -4.779463 177 177 177 
1.813084 0.878505 -4.785047 176 176 176 
2.315315 0.846847 -4.612613 119 102 60 
2.324324 0.846847 -4.612613 118 101 60 
2.333333 0.846847 -4.612613 119 101 60 
2.342342 0.846847 -4.612613 120 102 59 
2.351351 0.846847 -4.612613 119 101 56 
2.360360 0.846847 -4.612613 118 100 55 
2.369369 0.846847 -4.612613 119 100 56 
2.378378 0.846847 -4.612613 119 100 58 
2.387387 0.846847 -4.612613 118 100 59 
2.396396 0.846847 -4.612613 118 101 59 
2.405406 0.846847 -4.612613 119 101 60 
6.020000 1.880000 -10.240000 79 59 27 
6.040000 1.880000 -10.240000 130 114 85 
6.060000 1.880000 -10.240000 151 139 115 
6.072410 1.877653 -10.227216 154 143 124 
6.092384 1.877653 -10.227216 156 148 131 
6.112360 1.877653 -10.227216 155 149 134 
6.140000 1.880000 -10.240000 126 120 108 
7.910112 2.414125 -13.149278 76 71 63 
7.935794 2.414125 -13.149278 64 62 53 
7.948718 2.410256 -13.128205 98 99 88 
7.961600 2.406400 -13.107200 139 140 127 
7.974441 2.402556 -13.086262 148 149 135 
8.000000 2.402556 -13.086262 152 153 139 
-1.971429 0.885714 -4.876191 149 152 161 
-1.961905 0.885714 -4.876191 150 153 161 
-1.952381 0.885714 -4.876191 150 153 160 
-1.761468 0.853211 -4.697248 153 157 173 
-1.752294 0.853211 -4.697248 155 158 174 
-1.743119 0.853211 -4.697248 157 158 174 
-1.733945 0.853211 -4.697248 158 158 174 
-1.724771 0.853211 -4.697248 158 158 173 
-1.715596 0.853211 -4.697248 158 158 173 
-1.706422 0.853211 -4.697248 158 158 175 
-1.697248 0.853211 -4.697248 158 159 176 
-1.688073 0.853211 -4.697248 158 159 177 
-1.679862 0.853701 -4.699943 158 159 177 
-1.369369 0.837838 -4.612613 169 178 204 
-1.360360 0.837838 -4.612613 169 179 205 
-1.351351 0.837838 -4.612613 171 181 206 
-1.342342 0.837838 -4.612613 172 181 207 
-1.333333 0.837838 -4.612613 172 182 208 
-1.324324 0.837838 -4.612613 172 183 209 
-1.315315 0.837838 -4.612613 173 183 210 
-1.306306 0.837838 -4.612613 176 184 211 
-1.297297 0.837838 -4.612613 177 184 211 
-1.288288 0.837838 -4.612613 177 184 211 
-1.279279 0.837838 -4.612613 178 185 211 
-1.270270 0.837838 -4.612613 178 185 212 
-1.261261 0.837838 -4.612613 179 186 213 
-1.252252 0.837838 -4.612613 180 188 216 
-1.243243 0.837838 -4.612613 182 189 219 
-1.234234 0.837838 -4.612613 183 190 221 
-1.225225 0.837838 -4.612613 183 191 223 
-1.216216 0.837838 -4.612613 183 191 224 
-1.207207 0.837838 -4.612613 183 191 225 
-1.198198 0.837838 -4.612613 183 192 225 
-1.189189 0.837838 -4.612613 184 194 225 
-1.180180 0.837838 -4.612613 183 193 224 
-1.171171 0.837838 -4.612613 182 194 226 
-1.131222 0.841629 -4.633484 190 199 238 
-1.117117 0.837838 -4.612613 191 199 240 
-1.108108 0.837838 -4.612613 191 199 241 
-6.437500 5.812500 -32.000000 198 215 255 
-6.375000 5.812500 -32.000000 199 216 255 
-6.312500 5.812500 -32.000000 199 216 255 
-6.250000 5.812500 -32.000000 200 216 255 
-6.187500 5.812500 -32.000000 199 216 255 
-6.125000 5.812500 -32.000000 199 217 255 
-5.812734 5.573034 -30.681648 200 216 255 
-5.688889 5.511111 -30.340740 201 216 255 
-5.588235 5.470588 -30.117647 202 217 255 
-5.570370 5.511111 -30.340740 201 217 255 
-5.531599 5.531599 -30.453531 200 216 255 
-5.492537 5.552239 -30.567163 200 216 255 
-5.432836 5.552239 -30.567163 200 216 255 
-5.373134 5.552239 -30.567163 200 216 255 
-5.216117 5.450550 -30.007326 200 216 255 
-5.046595 5.333333 -29.362007 199 215 255 
-4.816609 5.148789 -28.346022 199 215 255 
-4.602007 4.976589 -27.397993 199 215 255 
-4.401295 4.815534 -26.511328 198 214 255 
-4.349514 4.815534 -26.511328 196 212 255 
0.066667 1.033333 -5.688889 94 96 115 
0.077509 1.029758 -5.669204 89 96 122 
0.088033 1.023384 -5.634113 110 121 151 
0.098969 1.022680 -5.630240 192 206 236 
0.109890 1.021978 -5.626374 208 225 255 
0.120796 1.021277 -5.622512 204 225 255 
0.131507 1.019178 -5.610959 203 226 255 
0.142368 1.018481 -5.607119 202 227 255 
0.153215 1.017784 -5.603283 203 227 255 
0.164159 1.017784 -5.603283 204 226 255 
0.360360 0.837838 -4.612613 220 220 228 
0.369369 0.837838 -4.612613 238 238 244 
0.378378 0.837838 -4.612613 252 252 254 
0.387387 0.837838 -4.612613 253 254 254 
0.396396 0.837838 -4.612613 253 254 254 
0.405405 0.837838 -4.612613 253 254 254 
0.414414 0.837838 -4.612613 253 254 254 
0.423423 0.837838 -4.612613 253 254 254 
0.432432 0.837838 -4.612613 253 254 254 
0.441441 0.837838 -4.612613 253 254 254 
0.450450 0.837838 -4.612613 253 254 254 
0.461538 0.841629 -4.633484 253 254 254 
0.468468 0.837838 -4.612613 253 254 254 
0.477477 0.837838 -4.612613 253 254 254 
0.486486 0.837838 -4.612613 253 254 254 
0.495495 0.837838 -4.612613 253 254 254 
0.504505 0.837838 -4.612613 253 254 254 
0.513514 0.837838 -4.612613 253 254 254 
0.522523 0.837838 -4.612613 253 254 254 
0.531532 0.837838 -4.612613 253 254 254 
0.540541 0.837838 -4.612613 253 254 254 
0.549550 0.837838 -4.612613 253 254 254 
0.558559 0.837838 -4.612613 253 254 254 
0.567568 0.837838 -4.612613 253 254 254 
0.576577 0.837838 -4.612613 253 254 254 
0.585586 0.837838 -4.612613 253 254 254 
0.594595 0.837838 -4.612613 253 254 254 
0.603604 0.837838 -4.612613 253 254 254 
0.612613 0.837838 -4.612613 253 254 254 
0.621622 0.837838 -4.612613 253 254 254 
0.630631 0.837838 -4.612613 253 254 254 
0.639640 0.837838 -4.612613 253 254 254 
0.648649 0.837838 -4.612613 253 254 254 
0.657658 0.837838 -4.612613 253 254 254 
0.666667 0.837838 -4.612613 253 254 254 
0.675676 0.837838 -4.612613 252 253 253 
0.684685 0.837838 -4.612613 251 253 253 
0.693694 0.837838 -4.612613 250 251 251 
0.702703 0.837838 -4.612613 249 250 250 
0.711712 0.837838 -4.612613 249 250 251 
0.720721 0.837838 -4.612613 249 249 252 
0.729730 0.837838 -4.612613 247 247 252 
0.738739 0.837838 -4.612613 246 246 253 
0.747748 0.837838 -4.612613 246 246 254 
0.756757 0.837838 -4.612613 245 244 255 
0.765766 0.837838 -4.612613 243 242 255 
0.774775 0.837838 -4.612613 241 240 255 
0.783784 0.837838 -4.612613 241 240 255 
0.792793 0.837838 -4.612613 241 240 255 
0.801802 0.837838 -4.612613 241 240 255 
0.810811 0.837838 -4.612613 241 240 255 
0.819820 0.837838 -4.612613 240 239 255 
0.828829 0.837838 -4.612613 240 239 255 
0.837838 0.837838 -4.612613 239 238 255 
0.846847 0.837838 -4.612613 238 236 255 
